-0.0024 68.6351 5.2201
-3.3598 68.5831 -4.9818
3.3598 68.5831 -4.9818
-2.3399 68.4348 -0.4784
2.3399 68.4348 -0.4784
-3.1163 68.4164 -1.8006
3.1163 68.4164 -1.8006
-3.5812 68.3138 -3.563
3.5812 68.3138 -3.563
-1.4328 68.0625 0.4754
1.4328 68.0625 0.4754
-0 67.81 1.2196
0 66.3875 -6.6686
-2.2745 66.2153 -6.5561
2.2745 66.2153 -6.5561
-4.4673 65.8694 -5.4629
4.4673 65.8694 -5.4628
-4.2674 65.7106 -4.1428
4.2674 65.7106 -4.1428
-3.2152 65.4843 -1.5017
3.2152 65.4843 -1.5017
-0 65.2957 0.5596
-1.732 65.2661 0.0615
1.732 65.2661 0.0615
-7.5719 63.948 -4.6852
7.5719 63.948 -4.6852
0 63.7807 -7.696
-3.8204 63.6821 -7.4884
3.8204 63.6821 -7.4884
-6.534 63.5369 -2.6016
6.534 63.5369 -2.6016
-10.2213 62.8889 -4.9833
10.2213 62.8889 -4.9832
-8.5534 62.7148 -7.3217
8.5534 62.7148 -7.3217
-9.2825 62.3692 -0.9613
9.2825 62.3692 -0.9613
-4.5742 62.0733 0.2675
4.5742 62.0733 0.2675
-1.7056 61.9377 1.0428
1.7056 61.9377 1.0428
-11.1202 61.8658 -7.6577
-0.0001 61.845 1.0157
-2.0296 60.7663 2.3868
2.0295 60.7663 2.3868
-4.7365 60.6429 1.9646
4.7365 60.6429 1.9646
-0.0105 60.3786 2.3795
-8.5251 60.3266 1.0642
8.5251 60.3266 1.0642
-4.2789 59.1745 -9.2103
4.2789 59.1745 -9.2103
0 59.1335 -8.9416
-9.3365 58.6944 -8.8029
9.3365 58.6944 -8.8029
-4.7647 58.4527 3.9052
4.7647 58.4527 3.9052
-7.9645 58.3347 2.7224
7.9645 58.3347 2.7224
-2.0708 58.1497 4.3684
2.0708 58.1497 4.3685
0.0016 58.09 4.3175
-10.0836 57.2589 1.5992
10.0836 57.2589 1.5992
-7.5976 56.9588 4.4527
7.5976 56.9588 4.4527
-4.8235 56.8811 5.4997
4.8235 56.8811 5.4997
-2.0549 56.3253 5.812
2.0447 56.3253 5.812
-0.013 56.1615 5.7326
-9.7069 55.9337 3.3749
9.7069 55.9337 3.3749
-5.0829 55.8132 6.9868
5.0829 55.8132 6.9868
-11.3583 55.7728 -0.3508
-7.4948 55.7625 6.115
7.4948 55.7625 6.115
0 55.1346 -8.9486
-7.6002 54.9534 7.4405
7.6002 54.9534 7.4405
-9.5179 54.9511 5.0831
9.5179 54.9511 5.0831
-5.761 54.9025 8.246
5.761 54.9025 8.246
-4.8015 54.459 -9.3264
4.8015 54.459 -9.3264
-2.93 54.3716 8.1148
2.93 54.3716 8.1148
-9.3975 54.2366 6.6181
9.3975 54.2366 6.6181
-7.7683 54.2121 8.7399
7.7683 54.2121 8.7399
-6.6136 54.1631 9.3147
6.6136 54.1631 9.3147
-1.2482 54.1239 7.5497
1.2482 54.1239 7.5497
0.0049 54.0793 7.134
-10.6562 53.9635 2.2814
10.6562 53.9635 2.2814
-4.1296 53.832 9.3018
4.1296 53.832 9.3018
-9.3603 53.5307 8.1459
9.3603 53.5307 8.1459
-5.3196 53.4061 10.2634
5.3196 53.4061 10.2634
-10.4188 53.3073 -7.882
10.4188 53.3073 -7.882
-8.0477 53.1796 10.3346
8.0477 53.1796 10.3346
-10.4705 53.1763 4.4826
10.4705 53.1763 4.4826
-10.3761 52.8037 6.2225
10.3761 52.8037 6.2225
-9.3006 52.7572 9.7909
9.3006 52.7572 9.7909
-6.9364 52.7191 11.2833
6.9364 52.7191 11.2833
-10.1354 52.6559 7.9638
10.1354 52.6559 7.9638
-4.9673 52.4173 10.977
4.9673 52.4173 10.977
-3.4967 52.2475 10.3708
3.4967 52.2475 10.3708
-2.0968 52.0159 9.519
2.0968 52.0159 9.519
-8.6422 51.959 11.2776
8.6422 51.959 11.2776
-0.8138 51.7585 8.6762
0.8138 51.7585 8.6762
0.017 51.6452 8.2878
-9.8802 51.5484 10.1143
9.8802 51.5484 10.1143
-10.6296 51.3842 8.2246
10.6296 51.3842 8.2246
-7.0094 51.3743 12.0387
7.0094 51.3743 12.0387
-11.4721 51.3501 -0.6068
-10.8606 51.1852 6.4168
10.8606 51.1852 6.4169
-10.9398 50.8777 4.5135
10.9398 50.8777 4.5135
-5.2829 50.8239 11.8722
5.2828 50.8239 11.8722
-9.5487 50.4801 10.8619
9.5487 50.4801 10.8619
-10.9682 50.4747 2.7471
10.9682 50.4747 2.7471
-10.6515 50.4147 8.629
10.6515 50.4147 8.6291
0 50.4064 -8.2224
-8.2522 50.3428 11.8177
8.2522 50.3428 11.8177
-10.8299 50.2336 -6.4455
10.8299 50.2336 -6.4454
-4.7429 50.1982 -8.7475
4.7429 50.1982 -8.7475
-3.6892 50.1516 11.3659
3.6892 50.1516 11.3659
-5.9517 49.7787 12.1062
5.9517 49.7787 12.1062
-2.366 49.5023 10.5523
2.366 49.5023 10.5523
-10.9639 49.4922 6.9093
10.9639 49.4922 6.9093
-10.3373 49.3089 9.5586
10.3373 49.3089 9.5586
-7.0715 48.8882 11.9271
7.0715 48.8882 11.9271
-1.0851 48.8535 9.6538
1.0851 48.8535 9.6538
-10.8519 48.7099 5.1963
10.8519 48.7099 5.1963
-9.5925 48.7083 10.4603
9.5925 48.7083 10.4604
-8.1917 48.5582 11.4166
8.1916 48.5582 11.4166
-4.6486 48.4182 11.6319
4.6485 48.4182 11.6319
0.0123 48.3488 9.667
-10.502 48.0704 7.9618
10.502 48.0704 7.9618
-10.4509 48.0611 3.6648
10.4509 48.0611 3.6648
-10.9226 48.0083 0.691
10.9226 48.0083 0.691
-11.3029 47.6339 -1.9658
-9.9808 47.5182 -5.7692
9.9808 47.5182 -5.7692
-6.0321 47.3147 11.41
6.0321 47.3147 11.41
0 47.2646 -7.2263
-3.5655 47.2522 10.8666
3.5655 47.2522 10.8666
-9.5114 47.1322 9.229
9.5114 47.1322 9.229
-4.6177 47.0936 -7.8732
4.6177 47.0936 -7.8732
-10.3302 47.0069 6.4641
10.3302 47.0069 6.4641
-7.8468 46.8564 10.5724
7.8468 46.8564 10.5724
-2.7427 46.3559 10.1722
2.7427 46.3559 10.1722
-5.3508 46.2027 10.6661
5.3508 46.2027 10.6661
-9.8545 46.201 5.272
9.8545 46.201 5.272
-9.1748 46.084 8.0991
9.1748 46.084 8.0991
-2.2901 45.8233 9.9092
2.2901 45.8233 9.9092
-7.3931 45.7937 9.5719
7.3931 45.7937 9.5719
0.0003 45.7334 10.0625
-4.8249 45.3508 9.9292
4.8249 45.3508 9.9292
-8.7672 45.3439 7.0815
8.7672 45.3439 7.0815
-7.0963 45.0499 8.7334
7.0963 45.0499 8.7334
0 44.8615 -6.3618
-4.0799 44.4626 -6.6512
4.0799 44.4626 -6.6512
-8.8626 44.3867 -4.7797
8.8626 44.3867 -4.7797
-10.7676 44.3615 -1.1309
10.7676 44.3615 -1.1309
-10.3302 44.222 3.264
10.3302 44.222 3.264
-8.237 43.2746 7.5371
8.237 43.2746 7.5371
0.0012 43.2166 10.503
-4.262 43.0448 10.4104
4.262 43.0448 10.4104
0 40.892 -4.9605
-3.2547 40.7843 -4.8927
3.2547 40.7843 -4.8927
-7.2803 40.5773 -3.2697
7.2803 40.5773 -3.2697
-9.6717 40.4553 3.1761
9.6717 40.4553 3.1761
-9.629 40.4184 -0.5977
9.629 40.4184 -0.5977
-0 40.3041 10.6237
-8.1989 40.2216 7.7951
8.1989 40.2216 7.7951
-4.3984 40.0694 10.5512
4.3984 40.0694 10.5512
0 36.5434 -3.8452
-2.7124 36.423 -3.554
2.7124 36.423 -3.554
-6.3228 36.2434 -2.112
6.3228 36.2434 -2.112
-8.0283 36.0828 -0.0297
8.0283 36.0828 -0.0297
-8.4311 35.8855 3.7179
8.4311 35.8855 3.7179
-7.0328 35.507 7.5066
7.0328 35.507 7.5066
-0 35.4217 10.2898
-4.0581 35.3003 9.7963
4.0581 35.3003 9.7963
0 32.8745 -2.9687
-2.7762 32.8347 -2.8128
2.7762 32.8347 -2.8128
-6.2303 32.7822 -1.6211
6.2304 32.7822 -1.6211
-8.3024 32.6838 0.6221
8.3024 32.6838 0.6221
-8.8458 32.4127 3.8666
8.8458 32.4127 3.8666
-7.3248 31.9071 6.9215
7.3247 31.9071 6.9215
-4.1291 31.4491 9.5073
4.1291 31.4491 9.5073
-0 31.2594 10.0438
0 29.9424 -3.6253
-2.607 29.8755 -3.5038
2.607 29.8755 -3.5038
-6.384 29.8712 -2.4814
6.384 29.8712 -2.4814
-8.9759 29.5568 0.0816
8.9759 29.5568 0.0816
-10.1004 29.0527 3.8991
10.1004 29.0527 3.8991
-8.45 28.1701 7.1359
8.45 28.1701 7.1359
-4.3402 27.174 9.1158
4.3402 27.174 9.1158
-4.2473 26.8463 -4.7331
4.2473 26.8463 -4.7331
0 26.8119 -5.4164
-8.4121 26.7274 -3.1897
8.4121 26.7274 -3.1897
-0 26.6916 9.9294
-9.9763 26.492 -1.0083
9.9763 26.492 -1.0083
-11.1565 26.0074 2.6536
11.1565 26.0074 2.6536
-10.5404 25.2024 5.9799
10.5404 25.2024 5.9799
-9.0869 24.4272 7.3515
9.0869 24.4272 7.3515
-9.5537 24.0512 -4.529
9.5537 24.0512 -4.529
-4.714 23.7824 -6.7979
4.714 23.7824 -6.7979
-11.2831 23.7142 -1.616
11.2831 23.7142 -1.616
0 23.6673 -7.247
-1.6216 23.6509 -7.1671
1.6216 23.6509 -7.1671
-4.8597 23.2598 8.95
4.8597 23.2598 8.9501
-11.8406 23.0941 2.7261
11.8406 23.0941 2.7261
-0 22.3963 9.8777
-10.8207 21.9301 6.2147
10.8207 21.9301 6.2147
-9.1896 20.8008 7.6025
9.1896 20.8008 7.6025
10.7874 20.5152 -6.9825
-10.9536 20.5002 -7.1254
12.7521 20.3506 -2.6623
-12.7521 20.3506 -2.6623
5.2976 20.3144 -9.9359
-6.1476 20.2065 -9.6841
1.6169 19.985 -9.9492
-1.6169 19.985 -9.9492
0.7305 19.8735 -9.4764
-0.7305 19.8735 -9.4764
13.1143 19.83 2.5343
-13.1143 19.83 2.5343
0 19.7683 -9.309
-4.9443 19.5718 8.4508
4.9443 19.5718 8.4508
-0 18.7094 9.2759
11.535 18.3606 6.3278
-11.535 18.3606 6.3278
9.3541 17.1852 7.7173
-9.3541 17.1852 7.7173
11.6908 16.7204 -8.4786
-11.8147 16.6898 -8.6348
13.614 16.686 -3.717
-13.614 16.686 -3.717
-7.2345 16.5275 -11.4564
6.1717 16.5044 -11.4019
1.636 16.2789 -11.4934
-1.636 16.2789 -11.4934
4.7598 16.2087 8.205
-4.7598 16.2087 8.205
0 16.1253 -10.211
0.4225 16.1196 -10.3586
-0.4225 16.1196 -10.3586
14.2694 15.9923 2.2618
-14.2694 15.9923 2.2618
-0 15.592 8.5714
12.3844 14.7667 6.511
-12.3844 14.7667 6.511
-9.1477 13.437 7.5599
-12.6853 62.4254 -5.6347
-12.4885 61.8633 -1.916
-14.9982 60.8723 -6.1441
-12.7761 60.7816 -7.7851
-14.6287 60.4749 -2.3017
-11.8804 59.3522 -0.1021
-14.5058 59.3112 -7.9048
-16.8114 58.7074 -6.4182
-16.4114 58.2984 -2.8849
-13.7541 57.9371 -0.7352
-12.4858 57.0986 -8.2577
-15.8296 56.8253 -8.0352
-18.2586 56.375 -6.5103
-15.2776 56.3542 -1.1773
-13.5938 56.0549 -8.0284
-17.8843 55.9137 -3.3765
-12.3446 55.1727 -1.2499
-14.9441 54.9516 -8.0334
-16.7444 54.5838 -1.7149
-16.6944 54.1707 -8.129
-11.7986 54.0815 -7.7071
-13.4298 54.0475 -1.5356
-12.4896 53.8746 -7.611
-11.8781 53.7449 -3.7655
-20.2618 53.6911 -6.5266
-19.899 53.3497 -3.9485
-13.371 52.8365 -7.6822
-13.0807 52.539 -4.3936
-18.9453 52.1978 -2.0918
-14.922 52.1889 -1.8192
-18.6593 52.0947 -8.4594
-14.5497 51.39 -7.8652
-14.2717 50.9953 -4.6687
-11.6257 50.5423 -2.8449
-24.2178 49.8537 -6.9522
-16.9552 49.7003 -2.08
-16.132 49.4559 -8.2177
-24.0039 49.4203 -4.6077
-16.1004 48.9547 -5.0626
-22.4346 48.3783 -9.1558
-22.7108 48.2473 -2.5722
-20.8353 45.9444 -2.7511
-19.8906 45.7789 -9.0635
-28.7425 45.5031 -7.5744
-19.9533 45.1985 -6.1164
-28.3335 45.0269 -5.0064
-26.8812 44.1375 -9.7235
-31.8678 43.5627 -7.7484
-27.1989 43.4689 -3.564
-31.333 42.7645 -5.1983
-24.8481 42.0141 -9.8412
-25.6948 41.8253 -4.0923
-24.6672 41.34 -6.9508
-30.0287 41.1759 -4.2393
-28.4375 39.1227 -5.2696
-34.3197 42.2345 -7.5183
-30.478 41.9019 -10.0726
-33.6636 41.3351 -4.9344
-36.6598 40.795 -7.1677
-32.7139 40.4977 -10.2761
-35.8469 40.0914 -4.3546
-28.362 39.5503 -10.4315
-32.1823 39.279 -4.0965
-35.0201 38.9515 -9.861
-27.933 38.4149 -7.5
-39.9022 38.3318 -6.4042
-30.7504 37.8762 -10.7287
-38.908 37.7964 -3.7218
-34.4659 37.6925 -3.5117
-30.5477 37.2616 -4.9739
-38.864 36.3886 -9.1714
-33.0998 36.3148 -10.4574
-30.0181 36.1096 -7.5422
-37.6132 35.6397 -3.0185
-32.9982 35.3679 -4.7671
-32.4379 34.2202 -7.7409
-45.0403 33.9492 -5.1023
-37.0528 33.8643 -9.8294
-44.3036 33.5203 -3.0379
-36.421 33.1176 -4.5902
-44.5049 32.4816 -7.468
-35.8823 32.0432 -7.5591
-42.9537 31.5677 -2.6654
-43.217 30.1969 -8.2433
-42.367 30.1222 -4.2816
-42.2787 29.3021 -6.8074
-51.0072 28.9081 -3.1744
-50.3506 28.2808 -1.9048
-51.8589 28.1063 -2.8514
-50.8705 27.9267 -5.4774
-51.3114 27.4108 -1.6275
-52.6436 27.3815 -2.3958
-49.3294 27.2393 -1.764
-51.9133 27.2223 -5.1718
-52.7008 26.7304 -4.8237
-51.7097 26.6029 -1.2536
-50.1158 26.5854 -6.5225
-50.2194 26.2741 -1.6428
-48.9184 26.221 -3.5111
-51.322 25.9183 -6.2396
-49.102 25.74 -5.6331
-49.9834 25.4174 -3.3296
-50.5672 25.3226 -1.4455
-52.1822 25.3028 -6.0338
-50.2506 25.0238 -5.3836
-50.5101 24.562 -0.922
-50.5554 24.5415 -3.2424
-50.9522 24.4191 -5.2005
12.6853 62.4254 -5.6347
11.1202 61.8658 -7.6577
12.4885 61.8633 -1.916
14.9982 60.8723 -6.1441
12.7761 60.7816 -7.7851
14.6287 60.4749 -2.3017
11.8804 59.3522 -0.1021
14.5059 59.3112 -7.9048
16.8114 58.7074 -6.4181
16.4114 58.2984 -2.8849
13.7541 57.9371 -0.7352
12.4858 57.0986 -8.2577
15.8296 56.8253 -8.0352
18.2586 56.375 -6.5103
15.2776 56.3542 -1.1773
13.5938 56.0549 -8.0284
17.8843 55.9137 -3.3765
11.3583 55.7728 -0.3508
14.9441 54.9516 -8.0334
16.7444 54.5838 -1.7149
12.7571 54.2733 -0.8268
16.6944 54.1707 -8.129
11.7986 54.0815 -7.7071
12.4896 53.8746 -7.611
11.8781 53.7449 -3.7655
20.2618 53.6911 -6.5266
19.899 53.3497 -3.9485
14.0219 53.1689 -1.3618
13.371 52.8365 -7.6822
13.0807 52.539 -4.3936
18.9453 52.1978 -2.0918
14.922 52.1889 -1.8192
18.6593 52.0947 -8.4594
14.5497 51.39 -7.8652
11.4721 51.3501 -0.6068
14.2717 50.9953 -4.6686
11.6257 50.5423 -2.8449
24.2178 49.8537 -6.9522
16.9552 49.7003 -2.08
16.132 49.4559 -8.2177
24.0039 49.4203 -4.6076
16.1004 48.9547 -5.0625
22.4346 48.3783 -9.1558
22.7108 48.2473 -2.5721
11.3029 47.6339 -1.9658
20.8353 45.9444 -2.7511
19.8906 45.7789 -9.0635
28.7425 45.5031 -7.5744
19.9533 45.1985 -6.1164
28.3335 45.0269 -5.0064
26.8812 44.1375 -9.7234
27.1989 43.4689 -3.5639
31.333 42.7645 -5.1983
24.8481 42.0141 -9.8412
25.6948 41.8253 -4.0923
24.6672 41.34 -6.9508
30.0288 41.1759 -4.2393
31.8678 43.5627 -7.7484
34.3197 42.2345 -7.5183
30.478 41.9019 -10.0726
33.6636 41.3351 -4.9344
36.6598 40.795 -7.1677
32.7139 40.4977 -10.2761
35.8469 40.0914 -4.3546
28.362 39.5503 -10.4315
32.1823 39.279 -4.0965
28.4375 39.1227 -5.2696
35.0201 38.9515 -9.861
27.933 38.4149 -7.5
39.9022 38.3318 -6.4042
30.7504 37.8762 -10.7287
38.908 37.7964 -3.7218
34.4659 37.6925 -3.5117
30.5477 37.2616 -4.9739
38.864 36.3886 -9.1714
33.0998 36.3148 -10.4574
30.0181 36.1096 -7.5422
37.6132 35.6397 -3.0185
32.9982 35.3679 -4.7671
32.4379 34.2202 -7.7409
45.0403 33.9492 -5.1023
37.0528 33.8643 -9.8294
44.3036 33.5203 -3.0379
36.421 33.1176 -4.5902
44.5049 32.4816 -7.468
35.8823 32.0432 -7.5591
42.9537 31.5677 -2.6654
43.217 30.1969 -8.2433
42.367 30.1222 -4.2816
42.2787 29.3021 -6.8074
51.0072 28.9081 -3.1744
50.3506 28.2808 -1.9048
51.8589 28.1063 -2.8514
50.8705 27.9267 -5.4774
51.3114 27.4108 -1.6274
52.6436 27.3815 -2.3958
49.3294 27.2393 -1.764
51.9133 27.2223 -5.1717
53.1729 26.8823 -1.8467
52.7008 26.7304 -4.8237
51.7097 26.6029 -1.2536
50.1158 26.5854 -6.5225
50.2194 26.2741 -1.6427
48.9184 26.221 -3.5111
51.322 25.9183 -6.2396
51.7852 25.8699 -0.8109
49.102 25.74 -5.633
49.9834 25.4174 -3.3296
50.5672 25.3226 -1.4454
52.1822 25.3028 -6.0338
50.2506 25.0238 -5.3835
50.5101 24.562 -0.922
50.5554 24.5415 -3.2424
50.9522 24.4191 -5.2004
50.5785 23.8829 -2.0133
51.0316 23.6973 -3.1048
-0.3688 12.7818 -10.1265
-4.6796 12.5775 7.2584
-14.893 12.4734 -3.9823
-12.4508 12.4492 -9.4636
-1.7726 12.4175 -11.8278
-15.2404 12.3788 2.2256
-7.5306 12.1519 -12.1062
-13.0822 11.4258 6.4041
-0.3748 11.0413 -9.6084
-3.164 10.5059 5.5128
-9.3785 10.2733 7.1572
-4.6955 9.88715 5.9097
-1.8729 9.64935 -11.213
-2.2295 9.54105 3.2248
-7.8615 8.82665 -11.8232
-1.2287 8.72905 -0.9976
-12.8605 8.68885 -9.5409
-0.4536 8.55925 -8.4668
-0.9396 7.95275 -4.949
-15.9424 7.46345 2.1
-15.7117 7.32635 -3.7813
-13.6627 6.80735 6.2411
-2.1596 6.65885 2.4197
-2.3746 6.58285 -9.6117
-1.8232 6.32415 -1.7281
-4.7572 6.00335 4.7406
-9.5171 5.91285 6.7644
-12.9519 5.88565 -8.9488
-3.0172 5.47775 -6.7345
-7.7867 5.44675 -10.722
-3.1746 5.17205 -5.4592
-12.9166 4.30195 -8.3623
-8.1337 3.82095 -9.6395
-16.4324 2.35055 -3.1108
-16.1945 2.25745 2.1561
-13.6527 1.71565 6.0099
-2.2249 1.54705 -2.0775
-2.3166 1.43195 0.9368
-13.1722 1.25185 -7.9757
-3.9877 1.17455 -6.0222
-5.0638 1.07585 3.976
-9.4822 1.06035 6.5616
-8.498 0.773048 -8.968
-13.6626 -3.94735 -7.7604
-16.4582 -4.04185 -2.5498
-9.2972 -4.37085 -8.6311
-15.9099 -4.65155 2.0895
-5.2148 -4.79435 -6.2578
-3.2473 -5.09025 -2.5797
-3.1546 -5.29085 -0.4092
-13.4903 -5.29395 5.5598
-9.4757 -5.55405 6.134
-5.6447 -5.55975 3.4172
-14.1767 -11.0546 -7.2527
-10.6423 -11.1548 -8.2816
-16.185 -11.4136 -2.2996
-6.8038 -11.612 -7.1283
-15.4591 -12.1518 1.9923
-4.8765 -12.1921 -3.3886
-4.6406 -12.3157 -2.3371
-6.2855 -12.8686 2.2346
-13.0859 -12.9451 5.0588
-9.3155 -13.2839 5.3115
-11.3726 -17.0042 -7.7863
-14.2598 -17.1684 -6.7496
-7.8894 -17.3689 -7.113
-15.6974 -17.5896 -2.3037
-5.7647 -18.409 -3.8321
-14.9377 -18.4983 1.421
-6.588 -19.1227 0.693
-8.8346 -19.5121 3.5996
-12.2835 -19.5607 3.857
-14.3588 -21.3708 -6.3702
-11.8802 -21.422 -7.4171
-15.3774 -21.8887 -2.4254
-8.3233 -22.0246 -7.369
-6.2066 -22.9201 -5.0381
-14.4345 -23.0677 1.3445
-11.9093 -23.6502 3.0144
-6.6334 -23.6692 -0.9191
-8.8375 -23.9142 2.3893
-15.0632 -25.708 -2.5453
-14.2244 -26.673 1.2467
-15.0599 -26.9715 -6.1225
-12.513 -27.1725 -7.5997
-11.999 -27.2696 2.6872
-6.833 -27.4209 -1.8385
-9.0418 -27.6455 1.7663
-9.0432 -27.8097 -7.5009
-7.0344 -28.4112 -6.0682
-15.5722 -29.527 -2.7825
-14.5197 -30.6814 0.6849
-7.4958 -31.1166 -2.8221
-12.159 -31.2346 1.9824
-9.6654 -31.5382 0.8062
-16.9378 -33.3274 -7.3163
-13.9896 -33.3778 -9.3109
-16.3674 -33.8449 -3.8176
-11.2103 -33.9822 -9.2997
-14.9821 -34.382 -0.9067
-8.8868 -34.4486 -8.0855
-12.8011 -34.8554 -0.0567
-8.4462 -35.0305 -4.0701
-10.4869 -35.1319 -0.8173
-18.0162 -38.7275 -8.0147
-17.5825 -38.9254 -4.4196
-15.3454 -39.0154 -10.7803
-15.6649 -39.4103 -1.7419
-12.0129 -39.6564 -10.689
-13.4391 -39.9425 -0.9312
-9.2713 -39.9569 -8.2878
-9.044 -40.1123 -4.832
-10.9704 -40.131 -2.305
-18.7277 -44.2295 -8.535
-18.5252 -44.4018 -5.0306
-16.1498 -44.7404 -11.3212
-16.5151 -44.8137 -1.8907
-12.2914 -45.1056 -11.3837
-14.1397 -45.2325 -1.2493
-9.6118 -45.451 -5.3349
-9.6667 -45.5517 -8.5105
-11.7285 -45.6375 -2.679
-18.9682 -49.8262 -8.3891
-18.8757 -49.8521 -5.1501
-16.9495 -50.0933 -2.3673
-16.3644 -50.1719 -10.9839
-14.5395 -50.2965 -1.7106
-12.5349 -50.4804 -3.2452
-13.0939 -50.6497 -11.2097
-10.5639 -50.6636 -5.6924
-10.5918 -50.7653 -8.97
-18.7401 -57.741 -5.5041
-18.6331 -57.7607 -8.0863
-17.3355 -57.776 -3.0888
-15.1121 -57.8226 -2.3193
-13.5451 -57.8361 -3.7693
-16.8565 -57.8547 -9.8407
-12.4021 -57.8601 -5.7373
-12.3066 -57.9035 -8.2376
-14.2415 -57.9305 -10.028
-18.3339 -65.2269 -5.47
-17.4009 -65.227 -3.6079
-18.2818 -65.2285 -7.5095
-15.5957 -65.2287 -2.9266
-14.1092 -65.2296 -3.9282
-13.4226 -65.2328 -5.8253
-17.0299 -65.2355 -9.1961
-14.8784 -65.2362 -9.4468
-13.4165 -65.2365 -7.8858
-17.3543 -69.3385 -3.4301
-18.3785 -69.3427 -5.4301
-15.7012 -69.3434 -2.8602
-18.4911 -69.3439 -7.2182
-14.2805 -69.3453 -3.7277
-13.748 -69.3576 -5.7226
-17.2178 -69.3641 -8.8288
-15.4162 -69.367 -9.3824
-13.971 -69.3717 -7.7876
-15.4011 -72.9806 -2.5129
-13.9776 -72.9983 -3.3758
-13.4975 -73.0103 -5.7537
9.1477 13.437 7.5599
0 12.8436 -9.8026
0.3688 12.7818 -10.1265
4.6796 12.5775 7.2584
14.893 12.4734 -3.9823
1.7726 12.4175 -11.8278
15.2404 12.3788 2.2256
-0 12.3167 7.8936
12.1919 12.2847 -9.1201
6.9551 11.9943 -11.7943
0 11.5089 -8.9793
13.0822 11.4258 6.4041
0.3748 11.0413 -9.6084
3.164 10.5059 5.5128
9.3785 10.2733 7.1572
-0 9.99575 5.8977
4.6955 9.88715 5.9097
2.0021 9.81015 -11.4785
2.2295 9.54105 3.2248
0 9.53825 -4.1108
-0 9.39925 2.3635
0 9.28095 -8.1578
0 9.21895 -0.8307
1.2287 8.72905 -0.9976
0.4536 8.55925 -8.4668
12.6937 8.55095 -9.125
7.4958 8.38575 -11.5244
0.9396 7.95275 -4.949
15.9424 7.46345 2.1
15.7117 7.32635 -3.7813
13.6627 6.80735 6.2411
2.6034 6.66585 -9.7389
2.1596 6.65885 2.4197
1.8232 6.32415 -1.7281
4.7572 6.00335 4.7406
9.5171 5.91285 6.7644
12.8932 5.81215 -8.6452
3.0172 5.47775 -6.7345
7.8372 5.18255 -10.4801
3.1747 5.17205 -5.4592
13.0337 4.32235 -8.2605
8.1337 3.82095 -9.6395
16.4324 2.35055 -3.1108
16.1945 2.25745 2.1561
13.6527 1.71565 6.0099
2.2249 1.54705 -2.0775
2.3166 1.43195 0.9368
13.1722 1.25185 -7.9757
3.9877 1.17455 -6.0222
5.0638 1.07585 3.976
9.4822 1.06035 6.5616
8.498 0.773048 -8.968
13.6626 -3.94735 -7.7604
16.4582 -4.04185 -2.5498
9.2972 -4.37085 -8.6311
15.9099 -4.65155 2.0895
5.2148 -4.79435 -6.2578
3.2473 -5.09025 -2.5797
3.1546 -5.29085 -0.4092
13.4903 -5.29395 5.5598
9.4757 -5.55405 6.134
5.6447 -5.55975 3.4172
14.1767 -11.0546 -7.2527
10.6423 -11.1548 -8.2816
16.185 -11.4136 -2.2996
6.8038 -11.612 -7.1283
15.4591 -12.1518 1.9923
4.8765 -12.1921 -3.3886
4.6406 -12.3157 -2.3371
6.2855 -12.8686 2.2346
13.0859 -12.9451 5.0588
9.3155 -13.2839 5.3115
11.3726 -17.0042 -7.7863
14.2598 -17.1684 -6.7495
7.8894 -17.3689 -7.113
15.6974 -17.5896 -2.3037
5.7647 -18.409 -3.8321
14.9377 -18.4983 1.421
6.588 -19.1227 0.693
8.8346 -19.5121 3.5996
12.2835 -19.5607 3.857
14.3588 -21.3708 -6.3702
11.8802 -21.422 -7.4171
15.3774 -21.8887 -2.4253
8.3233 -22.0246 -7.369
6.2066 -22.9201 -5.0381
14.4345 -23.0677 1.3445
11.9093 -23.6502 3.0144
6.6334 -23.6692 -0.9191
8.8375 -23.9142 2.3893
15.0632 -25.708 -2.5453
14.2244 -26.673 1.2467
15.0599 -26.9715 -6.1225
12.513 -27.1725 -7.5996
11.999 -27.2696 2.6872
6.833 -27.4209 -1.8385
9.0418 -27.6455 1.7664
9.0432 -27.8097 -7.5008
7.0344 -28.4112 -6.0682
15.5722 -29.527 -2.7825
7.4958 -31.1166 -2.8221
14.5197 -30.6814 0.685
12.159 -31.2346 1.9824
9.6654 -31.5382 0.8062
16.9378 -33.3274 -7.3162
13.9896 -33.3778 -9.3109
16.3674 -33.8449 -3.8176
11.2103 -33.9822 -9.2996
14.9821 -34.382 -0.9067
8.8868 -34.4486 -8.0855
12.8011 -34.8554 -0.0567
8.4462 -35.0305 -4.0701
10.4869 -35.1319 -0.8173
18.0162 -38.7275 -8.0147
17.5825 -38.9254 -4.4196
15.3455 -39.0154 -10.7803
15.6649 -39.4103 -1.7419
12.013 -39.6564 -10.689
13.4391 -39.9425 -0.9312
9.2713 -39.9569 -8.2878
9.044 -40.1123 -4.832
10.9704 -40.131 -2.305
18.7277 -44.2295 -8.535
18.5252 -44.4018 -5.0306
16.1498 -44.7404 -11.3212
16.5151 -44.8137 -1.8907
12.2914 -45.1056 -11.3837
14.1397 -45.2325 -1.2493
9.6118 -45.451 -5.3349
9.6667 -45.5517 -8.5105
11.7285 -45.6375 -2.679
18.9682 -49.8262 -8.3891
18.8757 -49.8521 -5.1501
16.9495 -50.0933 -2.3673
16.3645 -50.1719 -10.9839
14.5395 -50.2965 -1.7106
12.5349 -50.4804 -3.2452
13.0939 -50.6497 -11.2097
10.5639 -50.6636 -5.6924
10.5918 -50.7653 -8.97
18.7401 -57.741 -5.5041
18.6331 -57.7607 -8.0863
17.3355 -57.776 -3.0888
15.1121 -57.8226 -2.3193
13.5451 -57.8361 -3.7692
16.8565 -57.8547 -9.8407
12.4021 -57.8601 -5.7373
12.3067 -57.9035 -8.2376
14.2415 -57.9305 -10.028
18.3339 -65.2269 -5.47
17.4009 -65.227 -3.6079
18.2818 -65.2285 -7.5095
15.5957 -65.2287 -2.9266
14.1092 -65.2296 -3.9282
13.4226 -65.2328 -5.8253
17.03 -65.2355 -9.1961
14.8784 -65.2362 -9.4468
13.4165 -65.2365 -7.8858
17.3543 -69.3385 -3.43
18.3785 -69.3427 -5.4301
15.7012 -69.3434 -2.8602
18.4911 -69.3439 -7.2182
14.2805 -69.3453 -3.7276
13.748 -69.3576 -5.7226
17.2178 -69.3641 -8.8288
15.4162 -69.367 -9.3824
13.971 -69.3717 -7.7876
15.4011 -72.9806 -2.5129
17.4041 -72.9972 -2.8371
13.9776 -72.9983 -3.3758
17.9773 -73 -8.8295
15.7589 -73.0045 -9.5567
18.8081 -73.0062 -4.9276
13.4975 -73.0103 -5.7537
14.0468 -73.2536 -7.3204
